ply
format ascii 1.0
comment Point Cloud output from DepthCalc
element vertex 1509
property double x
property double y
property double z
property uchar red
property uchar green
property uchar blue
end_header
81  233  -40.591  165  165  165
81  234  -40.746  164  164  164
81  235  -40.746  164  164  164
81  236  -40.746  164  164  164
81  237  -40.591  165  165  165
81  238  -40.436  165  165  165
81  239  -40.436  165  165  165
81  240  -40.436  165  165  165
81  241  -40.436  165  165  165
81  242  -40.436  165  165  165
81  243  -40.591  165  165  165
81  244  -40.591  165  165  165
81  245  -40.591  165  165  165
81  246  -40.591  165  165  165
81  247  -40.436  165  165  165
81  248  -40.436  165  165  165
81  249  -40.436  165  165  165
81  250  -40.436  165  165  165
81  251  -40.436  165  165  165
81  252  -40.436  165  165  165
81  253  -40.436  165  165  165
81  254  -40.436  165  165  165
81  255  -40.591  165  165  165
81  256  -40.591  165  165  165
81  257  -40.436  165  165  165
81  258  -40.436  165  165  165
81  259  -40.436  165  165  165
81  260  -40.436  165  165  165
81  261  -40.436  165  165  165
81  295  -45.548  157  157  157
81  296  -45.548  157  157  157
81  297  -45.858  157  157  157
81  298  -45.858  157  157  157
81  299  -46.013  157  157  157
81  300  -46.013  157  157  157
81  301  -46.013  157  157  157
81  302  -46.013  157  157  157
81  303  -45.703  157  157  157
81  304  -45.548  157  157  157
81  305  -45.393  158  158  158
81  372  -190.404  70  70  70
81  373  -190.404  70  70  70
81  374  -189.939  70  70  70
81  375  -189.939  70  70  70
81  376  -189.475  70  70  70
81  377  -189.475  70  70  70
81  378  -189.475  70  70  70
81  379  -189.475  70  70  70
81  380  -189.939  70  70  70
81  381  -189.939  70  70  70
81  382  -189.939  70  70  70
81  383  -189.475  70  70  70
81  384  -189.475  70  70  70
81  385  -189.939  70  70  70
81  386  -190.404  70  70  70
81  387  -190.404  70  70  70
81  388  -190.869  70  70  70
81  389  -191.489  69  69  69
81  390  -191.954  69  69  69
81  391  -192.418  69  69  69
81  392  -192.418  69  69  69
81  393  -192.883  69  69  69
81  394  -192.883  69  69  69
81  395  -192.883  69  69  69
81  396  -192.883  69  69  69
81  397  -193.348  69  69  69
81  398  -193.813  69  69  69
81  399  -193.813  69  69  69
81  400  -193.813  69  69  69
81  401  -193.348  69  69  69
81  402  -193.348  69  69  69
81  403  -192.883  69  69  69
81  404  -192.418  69  69  69
81  405  -191.954  69  69  69
81  406  -191.954  69  69  69
81  407  -191.489  69  69  69
81  413  -10.535  226  226  226
81  414  -10.535  226  226  226
81  415  -10.535  226  226  226
81  416  -10.690  226  226  226
82  7  -36.718  171  171  171
82  8  -36.718  171  171  171
82  9  -36.718  171  171  171
82  10  -36.718  171  171  171
82  11  -36.718  171  171  171
82  12  -36.718  171  171  171
82  13  -36.718  171  171  171
82  14  -36.563  171  171  171
82  15  -36.563  171  171  171
82  16  -36.408  171  171  171
82  17  -36.408  171  171  171
82  18  -36.253  171  171  171
82  19  -36.098  171  171  171
82  20  -36.098  172  172  172
82  21  -36.098  172  172  172
82  22  -36.098  172  172  172
82  23  -36.098  172  172  172
82  24  -35.943  172  172  172
82  25  -35.943  172  172  172
82  26  -35.788  172  172  172
82  27  -35.788  172  172  172
82  28  -35.788  172  172  172
82  29  -35.788  172  172  172
82  30  -35.788  172  172  172
82  31  -35.943  172  172  172
82  32  -35.943  172  172  172
82  33  -35.943  172  172  172
82  34  -36.098  172  172  172
82  35  -36.098  171  171  171
82  36  -36.098  171  171  171
82  37  -36.098  172  172  172
82  38  -35.943  172  172  172
82  39  -35.943  172  172  172
82  40  -35.943  172  172  172
82  41  -35.943  172  172  172
82  50  -44.464  159  159  159
82  51  -44.464  159  159  159
82  52  -44.464  159  159  159
82  53  -44.619  159  159  159
82  54  -44.774  159  159  159
82  55  -44.774  159  159  159
82  56  -44.774  159  159  159
82  57  -44.774  159  159  159
82  58  -44.774  158  158  158
82  59  -44.774  158  158  158
82  60  -44.929  158  158  158
82  61  -45.084  158  158  158
82  62  -45.393  158  158  158
82  63  -45.703  157  157  157
82  64  -45.858  157  157  157
82  65  -46.013  157  157  157
82  74  -53.604  147  147  147
82  75  -53.604  147  147  147
82  76  -53.450  147  147  147
82  77  -53.604  147  147  147
82  78  -53.604  147  147  147
82  79  -53.450  147  147  147
82  80  -53.295  147  147  147
82  81  -53.450  147  147  147
82  82  -53.450  147  147  147
82  83  -53.295  147  147  147
82  84  -53.140  148  148  148
82  85  -52.985  148  148  148
82  86  -52.985  148  148  148
82  87  -52.830  148  148  148
82  94  -47.717  155  155  155
82  95  -47.717  155  155  155
82  96  -47.717  155  155  155
82  97  -47.872  154  154  154
82  98  -47.872  154  154  154
82  99  -47.872  154  154  154
82  100  -47.872  154  154  154
82  101  -48.027  154  154  154
82  102  -48.337  154  154  154
82  122  -44.619  159  159  159
82  123  -44.309  159  159  159
82  124  -43.999  160  160  160
82  125  -43.844  160  160  160
82  126  -43.689  160  160  160
82  127  -43.534  160  160  160
82  128  -43.224  161  161  161
82  129  -43.224  161  161  161
82  130  -43.069  161  161  161
82  131  -43.069  161  161  161
82  132  -43.069  161  161  161
82  133  -43.069  161  161  161
82  134  -42.915  161  161  161
82  135  -42.915  161  161  161
82  136  -42.760  161  161  161
82  137  -42.605  162  162  162
82  147  -39.351  166  166  166
82  148  -39.506  166  166  166
82  150  -39.661  166  166  166
82  151  -39.506  166  166  166
82  152  -39.506  166  166  166
82  153  -39.351  166  166  166
82  154  -39.351  166  166  166
82  155  -39.196  167  167  167
82  156  -39.196  167  167  167
82  157  -39.196  167  167  167
82  158  -39.196  167  167  167
82  159  -39.196  167  167  167
82  160  -39.196  167  167  167
82  161  -39.196  167  167  167
82  162  -39.196  167  167  167
82  163  -39.196  167  167  167
82  164  -39.196  167  167  167
82  165  -39.196  167  167  167
82  166  -39.196  167  167  167
82  167  -39.196  167  167  167
82  168  -39.351  166  166  166
82  169  -39.506  166  166  166
82  170  -39.661  166  166  166
82  171  -39.971  166  166  166
82  172  -39.971  166  166  166
82  173  -39.971  165  165  165
82  174  -39.971  166  166  166
82  175  -39.816  166  166  166
82  176  -39.971  166  166  166
82  177  -39.971  166  166  166
82  178  -39.971  166  166  166
82  179  -39.971  166  166  166
82  180  -39.971  166  166  166
82  181  -39.816  166  166  166
82  182  -39.661  166  166  166
82  183  -39.661  166  166  166
82  184  -39.506  166  166  166
82  185  -39.506  166  166  166
82  186  -39.506  166  166  166
82  187  -39.351  166  166  166
82  188  -39.196  167  167  167
82  189  -39.196  167  167  167
82  190  -39.196  167  167  167
82  191  -39.041  167  167  167
82  193  -38.886  167  167  167
82  194  -39.041  167  167  167
82  195  -39.041  167  167  167
82  196  -39.041  167  167  167
82  197  -39.041  167  167  167
82  198  -38.886  167  167  167
82  199  -38.886  167  167  167
82  200  -38.732  167  167  167
82  201  -38.732  167  167  167
82  202  -38.732  167  167  167
82  203  -38.732  167  167  167
82  204  -38.732  167  167  167
82  205  -38.732  167  167  167
82  206  -38.732  167  167  167
82  207  -38.732  167  167  167
82  208  -38.886  167  167  167
82  209  -38.886  167  167  167
82  210  -38.886  167  167  167
82  211  -39.041  167  167  167
82  212  -39.041  167  167  167
82  213  -39.196  167  167  167
82  214  -39.351  167  167  167
82  215  -39.351  166  166  166
82  216  -39.506  166  166  166
82  217  -39.661  166  166  166
82  218  -39.816  166  166  166
82  219  -39.971  166  166  166
82  220  -39.971  166  166  166
82  221  -40.126  165  165  165
82  222  -40.126  165  165  165
82  223  -40.281  165  165  165
82  224  -40.436  165  165  165
82  225  -40.436  165  165  165
82  226  -40.436  165  165  165
82  227  -40.436  165  165  165
82  228  -40.436  165  165  165
82  229  -40.436  165  165  165
82  230  -40.436  165  165  165
82  231  -40.591  165  165  165
82  232  -40.591  165  165  165
82  233  -40.591  165  165  165
82  234  -40.746  164  164  164
82  235  -40.746  164  164  164
82  236  -40.591  165  165  165
82  237  -40.591  165  165  165
82  238  -40.436  165  165  165
82  239  -40.436  165  165  165
82  240  -40.436  165  165  165
82  241  -40.436  165  165  165
82  242  -40.436  165  165  165
82  243  -40.591  165  165  165
82  244  -40.591  165  165  165
82  245  -40.591  165  165  165
82  246  -40.436  165  165  165
82  247  -40.436  165  165  165
82  248  -40.436  165  165  165
82  249  -40.281  165  165  165
82  250  -40.281  165  165  165
82  251  -40.281  165  165  165
82  252  -40.436  165  165  165
82  253  -40.436  165  165  165
82  254  -40.436  165  165  165
82  255  -40.436  165  165  165
82  256  -40.436  165  165  165
82  257  -40.436  165  165  165
82  258  -40.436  165  165  165
82  259  -40.436  165  165  165
82  260  -40.436  165  165  165
82  261  -40.436  165  165  165
82  295  -45.703  157  157  157
82  296  -45.703  157  157  157
82  297  -45.858  157  157  157
82  298  -45.703  157  157  157
82  299  -46.013  157  157  157
82  300  -46.013  157  157  157
82  301  -46.013  157  157  157
82  302  -45.858  157  157  157
82  303  -45.703  157  157  157
82  304  -45.238  158  158  158
83  7  -36.718  171  171  171
83  8  -36.872  170  170  170
83  9  -36.718  171  171  171
83  10  -36.718  171  171  171
83  11  -36.718  171  171  171
83  12  -36.718  171  171  171
83  13  -36.563  171  171  171
83  14  -36.563  171  171  171
83  15  -36.563  171  171  171
83  16  -36.408  171  171  171
83  17  -36.408  171  171  171
83  18  -36.253  171  171  171
83  19  -36.098  171  171  171
83  20  -36.098  172  172  172
83  21  -35.943  172  172  172
83  22  -35.943  172  172  172
83  23  -35.943  172  172  172
83  24  -35.943  172  172  172
83  25  -35.788  172  172  172
83  26  -35.788  172  172  172
83  27  -35.633  172  172  172
83  28  -35.788  172  172  172
83  29  -35.788  172  172  172
83  30  -35.788  172  172  172
83  31  -35.943  172  172  172
83  32  -35.943  172  172  172
83  33  -36.098  172  172  172
83  34  -36.098  171  171  171
83  35  -36.098  171  171  171
83  36  -36.253  171  171  171
83  37  -36.098  171  171  171
83  38  -36.098  171  171  171
83  39  -36.098  172  172  172
83  40  -36.098  172  172  172
83  52  -44.619  159  159  159
83  53  -44.619  159  159  159
83  54  -44.774  159  159  159
83  55  -44.774  158  158  158
83  56  -44.774  159  159  159
83  57  -44.774  158  158  158
83  62  -45.548  157  157  157
83  63  -45.858  157  157  157
83  64  -46.013  157  157  157
83  65  -46.013  157  157  157
83  73  -53.759  147  147  147
83  74  -53.914  147  147  147
83  75  -53.759  147  147  147
83  76  -53.759  147  147  147
83  77  -53.759  147  147  147
83  78  -53.759  147  147  147
83  79  -53.759  147  147  147
83  80  -53.604  147  147  147
83  81  -53.759  147  147  147
83  82  -53.759  147  147  147
83  83  -53.604  147  147  147
83  84  -53.450  147  147  147
83  85  -53.295  147  147  147
83  86  -53.295  148  148  148
83  87  -53.140  148  148  148
83  88  -52.985  148  148  148
83  89  -52.985  148  148  148
83  90  -52.985  148  148  148
83  102  -48.492  154  154  154
83  123  -44.309  159  159  159
83  124  -43.844  160  160  160
83  125  -43.689  160  160  160
83  126  -43.379  160  160  160
83  127  -43.379  161  161  161
83  128  -43.224  161  161  161
83  129  -43.069  161  161  161
83  130  -42.915  161  161  161
83  131  -42.915  161  161  161
83  132  -42.915  161  161  161
83  133  -42.915  161  161  161
83  134  -42.760  161  161  161
83  135  -42.760  161  161  161
83  136  -42.605  162  162  162
83  137  -42.295  162  162  162
83  138  -41.985  162  162  162
83  145  -39.506  166  166  166
83  146  -39.351  166  166  166
83  147  -39.351  166  166  166
83  148  -39.351  166  166  166
83  149  -39.506  166  166  166
83  150  -39.506  166  166  166
83  151  -39.506  166  166  166
83  152  -39.506  166  166  166
83  153  -39.351  166  166  166
83  154  -39.351  167  167  167
83  155  -39.351  167  167  167
83  156  -39.196  167  167  167
83  157  -39.196  167  167  167
83  158  -39.196  167  167  167
83  159  -39.196  167  167  167
83  160  -39.196  167  167  167
83  161  -39.196  167  167  167
83  162  -39.196  167  167  167
83  163  -39.351  167  167  167
83  164  -39.351  167  167  167
83  165  -39.196  167  167  167
83  166  -39.196  167  167  167
83  167  -39.351  167  167  167
83  168  -39.351  166  166  166
83  169  -39.506  166  166  166
83  170  -39.661  166  166  166
83  171  -39.816  166  166  166
83  172  -39.971  166  166  166
83  173  -39.971  166  166  166
83  174  -39.816  166  166  166
83  175  -39.816  166  166  166
83  176  -39.816  166  166  166
83  177  -39.816  166  166  166
83  178  -39.816  166  166  166
83  179  -39.971  166  166  166
83  180  -39.816  166  166  166
83  181  -39.816  166  166  166
83  182  -39.661  166  166  166
83  183  -39.661  166  166  166
83  184  -39.506  166  166  166
83  185  -39.506  166  166  166
83  186  -39.506  166  166  166
83  187  -39.506  166  166  166
83  188  -39.351  167  167  167
83  189  -39.351  167  167  167
83  190  -39.196  167  167  167
83  193  -38.886  167  167  167
83  194  -38.886  167  167  167
83  195  -38.886  167  167  167
83  196  -38.886  167  167  167
83  197  -38.886  167  167  167
83  198  -38.886  167  167  167
83  199  -38.732  167  167  167
83  200  -38.422  168  168  168
83  201  -38.267  168  168  168
83  202  -38.422  168  168  168
83  203  -38.577  168  168  168
83  204  -38.732  167  167  167
83  205  -38.732  167  167  167
83  206  -38.732  167  167  167
83  207  -38.732  167  167  167
83  208  -38.886  167  167  167
83  209  -38.886  167  167  167
83  210  -39.041  167  167  167
83  211  -39.041  167  167  167
83  212  -39.196  167  167  167
83  213  -39.351  167  167  167
83  214  -39.506  166  166  166
83  215  -39.506  166  166  166
83  216  -39.661  166  166  166
83  217  -39.971  166  166  166
83  218  -39.971  165  165  165
83  219  -39.971  165  165  165
83  220  -40.126  165  165  165
83  221  -40.126  165  165  165
83  222  -40.281  165  165  165
83  223  -40.281  165  165  165
83  224  -40.436  165  165  165
83  225  -40.436  165  165  165
83  226  -40.436  165  165  165
83  227  -40.436  165  165  165
83  228  -40.591  165  165  165
83  229  -40.591  165  165  165
83  230  -40.591  165  165  165
83  231  -40.591  165  165  165
83  232  -40.591  165  165  165
83  233  -40.746  164  164  164
83  234  -40.746  164  164  164
83  235  -40.746  164  164  164
83  236  -40.746  164  164  164
83  237  -40.591  165  165  165
83  238  -40.591  165  165  165
83  239  -40.436  165  165  165
83  240  -40.436  165  165  165
83  241  -40.436  165  165  165
83  242  -40.436  165  165  165
83  243  -40.591  165  165  165
83  244  -40.591  165  165  165
83  245  -40.591  165  165  165
83  246  -40.436  165  165  165
83  247  -40.436  165  165  165
83  248  -40.436  165  165  165
83  249  -40.281  165  165  165
83  250  -40.281  165  165  165
83  251  -40.436  165  165  165
83  252  -40.436  165  165  165
83  253  -40.436  165  165  165
83  254  -40.436  165  165  165
83  255  -40.436  165  165  165
83  256  -40.436  165  165  165
83  257  -40.436  165  165  165
83  258  -40.436  165  165  165
83  259  -40.436  165  165  165
83  260  -40.436  165  165  165
83  296  -45.548  157  157  157
83  297  -45.703  157  157  157
83  298  -45.703  157  157  157
83  299  -46.013  157  157  157
83  300  -46.013  157  157  157
83  301  -46.013  157  157  157
83  302  -46.013  157  157  157
84  7  -36.718  171  171  171
84  8  -36.718  171  171  171
84  9  -36.563  171  171  171
84  10  -36.563  171  171  171
84  11  -36.563  171  171  171
84  12  -36.563  171  171  171
84  13  -36.563  171  171  171
84  14  -36.563  171  171  171
84  15  -36.563  171  171  171
84  16  -36.408  171  171  171
84  17  -36.253  171  171  171
84  18  -36.253  171  171  171
84  19  -36.098  172  172  172
84  20  -35.943  172  172  172
84  21  -35.943  172  172  172
84  22  -35.943  172  172  172
84  23  -35.943  172  172  172
84  24  -35.788  172  172  172
84  25  -35.788  172  172  172
84  26  -35.633  172  172  172
84  27  -35.633  172  172  172
84  28  -35.633  172  172  172
84  29  -35.633  172  172  172
84  30  -35.633  172  172  172
84  31  -35.788  172  172  172
84  32  -35.943  172  172  172
84  33  -35.943  172  172  172
84  34  -36.098  172  172  172
84  35  -36.098  171  171  171
84  36  -36.253  171  171  171
84  37  -36.253  171  171  171
84  38  -36.098  171  171  171
84  39  -36.098  171  171  171
84  54  -44.774  159  159  159
84  74  -54.069  147  147  147
84  75  -53.914  147  147  147
84  76  -53.914  147  147  147
84  77  -54.069  147  147  147
84  78  -54.069  147  147  147
84  79  -53.914  147  147  147
84  80  -53.759  147  147  147
84  81  -53.759  147  147  147
84  82  -53.759  147  147  147
84  83  -53.759  147  147  147
84  84  -53.604  147  147  147
84  85  -53.450  147  147  147
84  86  -53.295  147  147  147
84  87  -53.295  148  148  148
84  88  -53.295  148  148  148
84  89  -53.140  148  148  148
84  90  -52.985  148  148  148
84  91  -52.830  148  148  148
84  92  -52.675  148  148  148
84  123  -44.154  159  159  159
84  124  -43.689  160  160  160
84  125  -43.379  160  160  160
84  126  -43.224  161  161  161
84  127  -43.224  161  161  161
84  128  -42.915  161  161  161
84  129  -42.915  161  161  161
84  130  -42.760  161  161  161
84  131  -42.760  161  161  161
84  132  -42.915  161  161  161
84  133  -42.760  161  161  161
84  134  -42.760  161  161  161
84  135  -42.760  161  161  161
84  136  -42.450  162  162  162
84  137  -42.140  162  162  162
84  138  -41.830  163  163  163
84  145  -39.351  167  167  167
84  146  -39.351  166  166  166
84  147  -39.351  166  166  166
84  148  -39.351  166  166  166
84  149  -39.506  166  166  166
84  150  -39.506  166  166  166
84  151  -39.351  166  166  166
84  152  -39.351  166  166  166
84  153  -39.351  167  167  167
84  154  -39.196  167  167  167
84  155  -39.196  167  167  167
84  156  -39.196  167  167  167
84  157  -39.196  167  167  167
84  158  -39.196  167  167  167
84  159  -39.196  167  167  167
84  160  -39.196  167  167  167
84  161  -39.196  167  167  167
84  162  -39.196  167  167  167
84  163  -39.351  167  167  167
84  164  -39.351  167  167  167
84  165  -39.196  167  167  167
84  166  -39.196  167  167  167
84  167  -39.351  167  167  167
84  168  -39.506  166  166  166
84  169  -39.661  166  166  166
84  170  -39.816  166  166  166
84  171  -39.971  166  166  166
84  172  -39.971  166  166  166
84  173  -39.971  166  166  166
84  174  -39.816  166  166  166
84  175  -39.816  166  166  166
84  176  -39.816  166  166  166
84  177  -39.816  166  166  166
84  178  -39.816  166  166  166
84  179  -39.816  166  166  166
84  180  -39.816  166  166  166
84  181  -39.661  166  166  166
84  182  -39.661  166  166  166
84  183  -39.661  166  166  166
84  184  -39.506  166  166  166
84  185  -39.506  166  166  166
84  186  -39.351  166  166  166
84  187  -39.351  166  166  166
84  188  -39.196  167  167  167
84  189  -39.196  167  167  167
84  190  -39.196  167  167  167
84  193  -38.886  167  167  167
84  194  -38.886  167  167  167
84  195  -38.886  167  167  167
84  196  -38.886  167  167  167
84  197  -38.886  167  167  167
84  198  -38.886  167  167  167
84  199  -38.732  167  167  167
84  200  -38.112  168  168  168
84  201  -37.957  169  169  169
84  202  -37.957  169  169  169
84  203  -38.267  168  168  168
84  204  -38.577  168  168  168
84  205  -38.577  168  168  168
84  206  -38.732  167  167  167
84  207  -38.732  167  167  167
84  208  -38.886  167  167  167
84  209  -38.886  167  167  167
84  210  -39.041  167  167  167
84  211  -39.196  167  167  167
84  212  -39.196  167  167  167
84  213  -39.351  167  167  167
84  214  -39.506  166  166  166
84  215  -39.506  166  166  166
84  216  -39.661  166  166  166
84  217  -39.971  165  165  165
84  218  -39.971  165  165  165
84  219  -40.126  165  165  165
84  220  -40.126  165  165  165
84  221  -40.281  165  165  165
84  222  -40.281  165  165  165
84  223  -40.436  165  165  165
84  224  -40.591  165  165  165
84  225  -40.746  164  164  164
84  226  -40.746  164  164  164
84  227  -40.746  164  164  164
84  228  -40.901  164  164  164
84  229  -40.901  164  164  164
84  230  -40.901  164  164  164
84  231  -40.901  164  164  164
84  232  -40.901  164  164  164
84  233  -40.901  164  164  164
84  234  -40.901  164  164  164
84  235  -40.901  164  164  164
84  236  -40.901  164  164  164
84  237  -40.746  164  164  164
84  238  -40.746  164  164  164
84  239  -40.746  164  164  164
84  240  -40.591  165  165  165
84  241  -40.591  165  165  165
84  242  -40.746  164  164  164
84  243  -40.746  164  164  164
84  244  -40.746  164  164  164
84  245  -40.746  164  164  164
84  246  -40.591  165  165  165
84  247  -40.436  165  165  165
84  248  -40.436  165  165  165
84  249  -40.436  165  165  165
84  250  -40.436  165  165  165
84  251  -40.436  165  165  165
84  252  -40.436  165  165  165
84  253  -40.436  165  165  165
84  254  -40.436  165  165  165
84  255  -40.436  165  165  165
84  256  -40.436  165  165  165
84  257  -40.436  165  165  165
84  258  -40.436  165  165  165
84  259  -40.281  165  165  165
84  297  -45.703  157  157  157
84  298  -45.548  157  157  157
84  299  -45.858  157  157  157
84  300  -46.013  157  157  157
84  301  -46.013  157  157  157
84  302  -45.703  157  157  157
84  303  -45.858  157  157  157
85  7  -36.563  171  171  171
85  8  -36.563  171  171  171
85  9  -36.408  171  171  171
85  10  -36.408  171  171  171
85  11  -36.563  171  171  171
85  12  -36.563  171  171  171
85  13  -36.408  171  171  171
85  14  -36.408  171  171  171
85  15  -36.408  171  171  171
85  16  -36.408  171  171  171
85  17  -36.253  171  171  171
85  18  -36.098  171  171  171
85  19  -36.098  172  172  172
85  20  -35.943  172  172  172
85  21  -35.788  172  172  172
85  22  -35.788  172  172  172
85  23  -35.788  172  172  172
85  24  -35.788  172  172  172
85  25  -35.633  172  172  172
85  26  -35.478  172  172  172
85  27  -35.478  173  173  173
85  28  -35.478  172  172  172
85  29  -35.478  172  172  172
85  30  -35.478  172  172  172
85  31  -35.633  172  172  172
85  32  -35.788  172  172  172
85  33  -35.788  172  172  172
85  34  -35.943  172  172  172
85  35  -36.098  172  172  172
85  36  -36.098  171  171  171
85  37  -36.098  171  171  171
85  74  -54.069  147  147  147
85  75  -53.914  147  147  147
85  76  -53.914  147  147  147
85  77  -54.069  147  147  147
85  78  -54.069  147  147  147
85  79  -53.914  147  147  147
85  80  -53.914  147  147  147
85  81  -53.914  147  147  147
85  82  -53.914  147  147  147
85  83  -53.759  147  147  147
85  84  -53.759  147  147  147
85  85  -53.604  147  147  147
85  86  -53.450  147  147  147
85  87  -53.450  147  147  147
85  88  -53.295  147  147  147
85  89  -53.295  148  148  148
85  90  -53.140  148  148  148
85  91  -52.830  148  148  148
85  92  -52.675  148  148  148
85  93  -52.675  148  148  148
85  94  -52.675  148  148  148
85  123  -43.999  160  160  160
85  124  -43.379  160  160  160
85  126  -43.069  161  161  161
85  127  -42.915  161  161  161
85  128  -42.915  161  161  161
85  129  -42.915  161  161  161
85  130  -42.760  161  161  161
85  131  -42.760  161  161  161
85  132  -42.760  161  161  161
85  133  -42.760  161  161  161
85  134  -42.760  161  161  161
85  135  -42.605  162  162  162
85  136  -42.295  162  162  162
85  137  -41.985  162  162  162
85  146  -39.506  166  166  166
85  147  -39.351  166  166  166
85  148  -39.506  166  166  166
85  149  -39.506  166  166  166
85  150  -39.506  166  166  166
85  151  -39.351  166  166  166
85  152  -39.351  166  166  166
85  153  -39.351  167  167  167
85  154  -39.196  167  167  167
85  155  -39.196  167  167  167
85  156  -39.196  167  167  167
85  157  -39.196  167  167  167
85  158  -39.196  167  167  167
85  159  -39.196  167  167  167
85  160  -39.196  167  167  167
85  161  -39.196  167  167  167
85  162  -39.196  167  167  167
85  163  -39.351  167  167  167
85  164  -39.351  167  167  167
85  165  -39.351  167  167  167
85  166  -39.351  167  167  167
85  167  -39.351  166  166  166
85  168  -39.506  166  166  166
85  169  -39.661  166  166  166
85  170  -39.816  166  166  166
85  171  -39.971  166  166  166
85  172  -39.971  166  166  166
85  173  -39.971  166  166  166
85  174  -39.816  166  166  166
85  175  -39.661  166  166  166
85  176  -39.816  166  166  166
85  177  -39.816  166  166  166
85  178  -39.816  166  166  166
85  179  -39.816  166  166  166
85  180  -39.661  166  166  166
85  181  -39.506  166  166  166
85  182  -39.506  166  166  166
85  183  -39.506  166  166  166
85  184  -39.351  166  166  166
85  185  -39.351  167  167  167
85  186  -39.196  167  167  167
85  187  -39.196  167  167  167
85  188  -39.196  167  167  167
85  189  -39.196  167  167  167
85  191  -38.886  167  167  167
85  192  -38.577  168  168  168
85  193  -38.422  168  168  168
85  194  -38.422  168  168  168
85  195  -38.577  168  168  168
85  196  -38.732  167  167  167
85  197  -38.422  168  168  168
85  198  -38.112  168  168  168
85  199  -37.802  169  169  169
85  200  -37.802  169  169  169
85  201  -37.802  169  169  169
85  202  -37.802  169  169  169
85  203  -38.112  168  168  168
85  204  -38.267  168  168  168
85  205  -38.422  168  168  168
85  206  -38.577  168  168  168
85  207  -38.732  167  167  167
85  208  -38.886  167  167  167
85  209  -39.041  167  167  167
85  210  -39.196  167  167  167
85  211  -39.196  167  167  167
85  212  -39.351  166  166  166
85  213  -39.506  166  166  166
85  214  -39.661  166  166  166
85  215  -39.816  166  166  166
85  216  -39.971  166  166  166
85  217  -40.126  165  165  165
85  218  -40.126  165  165  165
85  219  -40.126  165  165  165
85  220  -40.281  165  165  165
85  221  -40.436  165  165  165
85  222  -40.436  165  165  165
85  223  -40.436  165  165  165
85  224  -40.746  164  164  164
85  225  -40.746  164  164  164
85  226  -40.901  164  164  164
85  227  -40.901  164  164  164
85  228  -41.055  164  164  164
85  229  -41.055  164  164  164
85  230  -41.055  164  164  164
85  231  -41.055  164  164  164
85  232  -40.901  164  164  164
85  233  -41.055  164  164  164
85  234  -41.055  164  164  164
85  235  -41.055  164  164  164
85  236  -40.901  164  164  164
85  237  -40.901  164  164  164
85  238  -40.746  164  164  164
85  239  -40.746  164  164  164
85  240  -40.591  165  165  165
85  241  -40.591  165  165  165
85  242  -40.591  165  165  165
85  243  -40.746  164  164  164
85  244  -40.746  164  164  164
85  245  -40.591  165  165  165
85  246  -40.591  165  165  165
85  247  -40.436  165  165  165
85  248  -40.436  165  165  165
85  249  -40.281  165  165  165
85  250  -40.281  165  165  165
85  251  -40.436  165  165  165
85  252  -40.436  165  165  165
85  253  -40.436  165  165  165
85  254  -40.436  165  165  165
85  255  -40.436  165  165  165
85  256  -40.436  165  165  165
85  257  -40.436  165  165  165
85  297  -45.703  157  157  157
85  298  -45.703  157  157  157
85  299  -45.858  157  157  157
85  300  -46.013  157  157  157
85  301  -46.013  157  157  157
85  302  -46.013  157  157  157
86  7  -36.408  171  171  171
86  8  -36.563  171  171  171
86  9  -36.408  171  171  171
86  10  -36.408  171  171  171
86  11  -36.408  171  171  171
86  12  -36.408  171  171  171
86  13  -36.408  171  171  171
86  14  -36.408  171  171  171
86  15  -36.408  171  171  171
86  16  -36.408  171  171  171
86  17  -36.253  171  171  171
86  18  -36.253  171  171  171
86  19  -36.098  171  171  171
86  20  -36.098  172  172  172
86  21  -35.943  172  172  172
86  22  -35.943  172  172  172
86  23  -35.788  172  172  172
86  24  -35.788  172  172  172
86  25  -35.633  172  172  172
86  26  -35.478  172  172  172
86  27  -35.478  172  172  172
86  28  -35.478  172  172  172
86  29  -35.478  172  172  172
86  30  -35.478  173  173  173
86  31  -35.478  172  172  172
86  32  -35.633  172  172  172
86  33  -35.633  172  172  172
86  34  -35.788  172  172  172
86  35  -35.943  172  172  172
86  75  -54.069  147  147  147
86  76  -54.069  147  147  147
86  77  -54.069  147  147  147
86  78  -54.069  147  147  147
86  79  -54.069  147  147  147
86  80  -54.069  147  147  147
86  81  -54.069  147  147  147
86  82  -54.069  147  147  147
86  83  -54.069  147  147  147
86  84  -53.914  147  147  147
86  85  -53.759  147  147  147
86  86  -53.759  147  147  147
86  87  -53.759  147  147  147
86  88  -53.759  147  147  147
86  89  -53.604  147  147  147
86  90  -53.604  147  147  147
86  112  -32.534  178  178  178
86  113  -32.689  177  177  177
86  127  -42.915  161  161  161
86  128  -42.915  161  161  161
86  129  -42.915  161  161  161
86  130  -42.760  161  161  161
86  131  -42.760  161  161  161
86  132  -42.760  161  161  161
86  133  -42.760  161  161  161
86  134  -42.760  161  161  161
86  135  -42.605  162  162  162
86  136  -42.295  162  162  162
86  137  -41.830  163  163  163
86  148  -39.351  167  167  167
86  149  -39.351  166  166  166
86  150  -39.351  166  166  166
86  151  -39.351  167  167  167
86  152  -39.351  167  167  167
86  153  -39.351  167  167  167
86  154  -39.196  167  167  167
86  155  -39.196  167  167  167
86  156  -39.196  167  167  167
86  157  -39.196  167  167  167
86  158  -39.196  167  167  167
86  159  -39.196  167  167  167
86  160  -39.196  167  167  167
86  161  -39.351  167  167  167
86  162  -39.351  167  167  167
86  163  -39.351  166  166  166
86  164  -39.351  166  166  166
86  165  -39.351  166  166  166
86  166  -39.506  166  166  166
86  167  -39.506  166  166  166
86  168  -39.661  166  166  166
86  169  -39.661  166  166  166
86  170  -39.816  166  166  166
86  171  -39.971  166  166  166
86  172  -39.971  166  166  166
86  173  -39.971  166  166  166
86  174  -39.816  166  166  166
86  175  -39.661  166  166  166
86  176  -39.816  166  166  166
86  177  -39.816  166  166  166
86  178  -39.816  166  166  166
86  179  -39.661  166  166  166
86  180  -39.506  166  166  166
86  181  -39.506  166  166  166
86  182  -39.351  166  166  166
86  183  -39.351  167  167  167
86  184  -39.196  167  167  167
86  185  -39.196  167  167  167
86  186  -39.041  167  167  167
86  187  -38.886  167  167  167
86  188  -38.732  167  167  167
86  189  -38.577  168  168  168
86  190  -38.267  168  168  168
86  191  -37.957  169  169  169
86  192  -37.802  169  169  169
86  193  -37.802  169  169  169
86  194  -37.957  169  169  169
86  195  -38.112  168  168  168
86  196  -38.112  168  168  168
86  197  -38.112  168  168  168
86  198  -37.802  169  169  169
86  199  -37.647  169  169  169
86  200  -37.647  169  169  169
86  201  -37.647  169  169  169
86  202  -37.647  169  169  169
86  203  -37.802  169  169  169
86  204  -37.802  169  169  169
86  205  -38.112  168  168  168
86  206  -38.112  168  168  168
86  207  -38.422  168  168  168
86  208  -38.732  167  167  167
86  209  -38.886  167  167  167
86  210  -39.041  167  167  167
86  211  -39.196  167  167  167
86  212  -39.351  167  167  167
86  213  -39.351  166  166  166
86  214  -39.506  166  166  166
86  215  -39.661  166  166  166
86  216  -39.971  166  166  166
86  217  -40.126  165  165  165
86  218  -40.126  165  165  165
86  219  -40.281  165  165  165
86  220  -40.436  165  165  165
86  221  -40.436  165  165  165
86  222  -40.436  165  165  165
86  223  -40.591  165  165  165
86  224  -40.746  164  164  164
86  225  -40.901  164  164  164
86  226  -40.901  164  164  164
86  227  -41.055  164  164  164
86  228  -41.055  164  164  164
86  229  -41.055  164  164  164
86  230  -41.055  164  164  164
86  231  -41.055  164  164  164
86  232  -40.901  164  164  164
86  233  -40.901  164  164  164
86  234  -41.055  164  164  164
86  235  -40.901  164  164  164
86  236  -40.901  164  164  164
86  237  -40.746  164  164  164
86  238  -40.746  164  164  164
86  239  -40.746  164  164  164
86  240  -40.746  164  164  164
86  241  -40.746  164  164  164
86  242  -40.746  164  164  164
86  243  -40.746  164  164  164
86  244  -40.746  164  164  164
86  245  -40.746  164  164  164
86  246  -40.591  165  165  165
86  247  -40.436  165  165  165
86  248  -40.436  165  165  165
86  249  -40.436  165  165  165
86  250  -40.436  165  165  165
86  251  -40.436  165  165  165
86  252  -40.436  165  165  165
86  253  -40.436  165  165  165
86  254  -40.436  165  165  165
86  255  -40.436  165  165  165
86  256  -40.436  165  165  165
86  257  -40.436  165  165  165
86  298  -45.858  157  157  157
86  299  -46.013  157  157  157
86  300  -46.168  157  157  157
86  301  -46.168  157  157  157
86  302  -46.168  157  157  157
87  7  -36.098  172  172  172
87  8  -36.098  171  171  171
87  9  -35.943  172  172  172
87  10  -36.098  172  172  172
87  11  -36.253  171  171  171
87  12  -36.253  171  171  171
87  13  -36.253  171  171  171
87  14  -36.253  171  171  171
87  15  -36.408  171  171  171
87  16  -36.253  171  171  171
87  17  -36.098  171  171  171
87  18  -36.098  171  171  171
87  19  -36.098  172  172  172
87  20  -36.098  172  172  172
87  21  -35.943  172  172  172
87  22  -35.943  172  172  172
87  23  -35.788  172  172  172
87  24  -35.788  172  172  172
87  25  -35.633  172  172  172
87  26  -35.478  172  172  172
87  27  -35.478  173  173  173
87  28  -35.478  173  173  173
87  29  -35.323  173  173  173
87  30  -35.323  173  173  173
87  31  -35.478  173  173  173
87  32  -35.478  172  172  172
87  33  -35.478  172  172  172
87  76  -54.069  147  147  147
87  77  -54.069  147  147  147
87  78  -54.224  146  146  146
87  79  -54.069  147  147  147
87  80  -54.069  147  147  147
87  81  -54.069  147  147  147
87  82  -54.069  147  147  147
87  83  -54.069  147  147  147
87  84  -54.069  147  147  147
87  85  -53.914  147  147  147
87  86  -53.914  147  147  147
87  87  -54.069  147  147  147
87  88  -53.914  147  147  147
87  89  -53.914  147  147  147
87  90  -54.069  147  147  147
87  110  -32.534  178  178  178
87  111  -32.534  178  178  178
87  112  -32.534  178  178  178
87  113  -32.689  177  177  177
87  115  -32.689  177  177  177
87  116  -32.689  177  177  177
87  117  -32.844  177  177  177
87  118  -32.844  177  177  177
87  119  -32.844  177  177  177
87  126  -42.915  161  161  161
87  127  -42.760  161  161  161
87  128  -42.605  162  162  162
87  129  -42.605  162  162  162
87  130  -42.450  162  162  162
87  131  -42.605  162  162  162
87  132  -42.450  162  162  162
87  133  -42.295  162  162  162
87  134  -42.295  162  162  162
87  135  -42.140  162  162  162
87  136  -41.830  163  163  163
87  137  -41.675  163  163  163
87  138  -41.365  163  163  163
87  153  -39.196  167  167  167
87  154  -39.196  167  167  167
87  155  -39.196  167  167  167
87  156  -39.196  167  167  167
87  157  -39.196  167  167  167
87  158  -39.196  167  167  167
87  159  -39.196  167  167  167
87  160  -39.196  167  167  167
87  161  -39.041  167  167  167
87  162  -39.196  167  167  167
87  163  -39.196  167  167  167
87  164  -39.196  167  167  167
87  165  -39.041  167  167  167
87  166  -39.041  167  167  167
87  167  -39.196  167  167  167
87  168  -39.196  167  167  167
87  169  -39.196  167  167  167
87  170  -39.351  166  166  166
87  171  -39.351  166  166  166
87  172  -39.351  166  166  166
87  173  -39.506  166  166  166
87  174  -39.351  166  166  166
87  175  -39.351  166  166  166
87  176  -39.351  166  166  166
87  177  -39.506  166  166  166
87  178  -39.506  166  166  166
87  179  -39.351  166  166  166
87  180  -39.351  167  167  167
87  181  -39.351  167  167  167
87  182  -39.196  167  167  167
87  183  -39.196  167  167  167
87  185  -38.886  167  167  167
87  187  -38.112  168  168  168
87  188  -37.957  169  169  169
87  189  -37.802  169  169  169
87  190  -37.647  169  169  169
87  191  -37.647  169  169  169
87  192  -37.647  169  169  169
87  193  -37.647  169  169  169
87  194  -37.802  169  169  169
87  195  -37.802  169  169  169
87  196  -37.957  169  169  169
87  197  -37.957  169  169  169
87  198  -37.802  169  169  169
87  199  -37.802  169  169  169
87  200  -37.647  169  169  169
87  201  -37.647  169  169  169
87  202  -37.647  169  169  169
87  203  -37.802  169  169  169
87  204  -37.802  169  169  169
87  205  -37.802  169  169  169
87  206  -37.957  169  169  169
87  207  -38.112  168  168  168
87  208  -38.422  168  168  168
87  209  -38.732  167  167  167
87  210  -38.732  167  167  167
87  211  -38.886  167  167  167
87  212  -39.196  167  167  167
87  213  -39.351  167  167  167
87  214  -39.506  166  166  166
87  215  -39.661  166  166  166
87  216  -39.971  165  165  165
87  217  -40.126  165  165  165
87  218  -40.126  165  165  165
87  219  -40.281  165  165  165
87  220  -40.436  165  165  165
87  221  -40.436  165  165  165
87  222  -40.591  165  165  165
87  223  -40.746  164  164  164
87  224  -40.746  164  164  164
87  225  -40.901  164  164  164
87  226  -40.901  164  164  164
87  227  -41.055  164  164  164
87  228  -41.055  164  164  164
87  229  -41.055  164  164  164
87  230  -41.055  164  164  164
87  231  -41.055  164  164  164
87  232  -41.055  164  164  164
87  233  -41.055  164  164  164
87  234  -41.055  164  164  164
87  235  -41.055  164  164  164
87  236  -40.901  164  164  164
87  237  -40.901  164  164  164
87  238  -40.746  164  164  164
87  239  -40.746  164  164  164
87  240  -40.746  164  164  164
87  241  -40.746  164  164  164
87  242  -40.746  164  164  164
87  243  -40.746  164  164  164
87  244  -40.746  164  164  164
87  245  -40.746  164  164  164
87  246  -40.591  165  165  165
87  247  -40.436  165  165  165
87  248  -40.436  165  165  165
87  249  -40.436  165  165  165
87  250  -40.436  165  165  165
87  251  -40.436  165  165  165
87  252  -40.436  165  165  165
87  253  -40.436  165  165  165
87  254  -40.436  165  165  165
87  255  -40.436  165  165  165
87  298  -45.858  157  157  157
87  299  -46.013  157  157  157
87  300  -46.168  157  157  157
87  301  -46.323  156  156  156
87  302  -46.168  157  157  157
88  8  -35.323  173  173  173
88  9  -35.478  172  172  172
88  10  -35.788  172  172  172
88  11  -36.098  171  171  171
88  12  -36.253  171  171  171
88  13  -36.253  171  171  171
88  14  -36.253  171  171  171
88  15  -36.408  171  171  171
88  16  -36.098  171  171  171
88  17  -36.098  172  172  172
88  18  -36.098  172  172  172
88  19  -36.098  172  172  172
88  20  -35.943  172  172  172
88  21  -35.943  172  172  172
88  22  -35.943  172  172  172
88  23  -35.943  172  172  172
88  24  -35.788  172  172  172
88  25  -35.633  172  172  172
88  26  -35.478  172  172  172
88  27  -35.478  173  173  173
88  28  -35.478  173  173  173
88  29  -35.478  173  173  173
88  30  -35.323  173  173  173
88  31  -35.478  173  173  173
88  32  -35.478  172  172  172
88  33  -35.478  172  172  172
88  76  -53.914  147  147  147
88  77  -54.069  147  147  147
88  78  -54.224  146  146  146
88  79  -54.224  146  146  146
88  80  -54.224  146  146  146
88  81  -54.224  146  146  146
88  82  -54.224  146  146  146
88  83  -54.224  146  146  146
88  84  -54.069  147  147  147
88  85  -54.069  147  147  147
88  86  -54.069  147  147  147
88  87  -54.069  147  147  147
88  88  -54.069  147  147  147
88  109  -32.689  177  177  177
88  110  -32.534  178  178  178
88  111  -32.534  178  178  178
88  112  -32.534  178  178  178
88  113  -32.689  177  177  177
88  114  -32.689  177  177  177
88  115  -32.689  177  177  177
88  116  -32.689  177  177  177
88  117  -32.844  177  177  177
88  118  -32.844  177  177  177
88  119  -32.844  177  177  177
88  120  -32.844  177  177  177
88  125  -42.760  161  161  161
88  126  -42.450  162  162  162
88  127  -42.295  162  162  162
88  128  -42.140  162  162  162
88  129  -42.140  162  162  162
88  130  -42.140  162  162  162
88  131  -42.140  162  162  162
88  132  -42.140  162  162  162
88  133  -41.985  162  162  162
88  134  -41.830  163  163  163
88  135  -41.830  163  163  163
88  136  -41.675  163  163  163
88  154  -39.196  167  167  167
88  155  -39.196  167  167  167
88  156  -39.196  167  167  167
88  157  -39.041  167  167  167
88  158  -39.041  167  167  167
88  159  -38.886  167  167  167
88  160  -38.886  167  167  167
88  161  -38.886  167  167  167
88  162  -38.886  167  167  167
88  163  -38.886  167  167  167
88  164  -38.886  167  167  167
88  165  -38.732  167  167  167
88  166  -38.732  167  167  167
88  167  -38.577  168  168  168
88  168  -38.577  168  168  168
88  169  -38.422  168  168  168
88  170  -38.422  168  168  168
88  171  -38.422  168  168  168
88  172  -38.267  168  168  168
88  173  -38.577  168  168  168
88  174  -38.732  167  167  167
88  175  -38.422  168  168  168
88  176  -38.112  168  168  168
88  177  -38.112  168  168  168
88  178  -38.112  168  168  168
88  179  -37.802  169  169  169
88  183  -37.802  169  169  169
88  184  -37.802  169  169  169
88  187  -37.647  169  169  169
88  188  -37.647  169  169  169
88  189  -37.647  169  169  169
88  190  -37.647  169  169  169
88  191  -37.647  169  169  169
88  192  -37.647  169  169  169
88  193  -37.647  169  169  169
88  194  -37.802  169  169  169
88  195  -37.802  169  169  169
88  196  -37.802  169  169  169
88  197  -37.802  169  169  169
88  198  -37.802  169  169  169
88  199  -37.647  169  169  169
88  200  -37.647  169  169  169
88  201  -37.647  169  169  169
88  202  -37.647  169  169  169
88  203  -37.647  169  169  169
88  204  -37.647  169  169  169
88  205  -37.802  169  169  169
88  206  -37.802  169  169  169
88  207  -37.802  169  169  169
88  208  -38.267  168  168  168
88  209  -38.577  168  168  168
88  210  -38.732  167  167  167
88  211  -38.886  167  167  167
88  212  -39.196  167  167  167
88  213  -39.351  166  166  166
88  214  -39.661  166  166  166
88  215  -39.971  165  165  165
88  216  -40.126  165  165  165
88  217  -40.281  165  165  165
88  218  -40.281  165  165  165
88  219  -40.281  165  165  165
88  220  -40.436  165  165  165
88  221  -40.436  165  165  165
88  222  -40.436  165  165  165
88  223  -40.591  165  165  165
88  224  -40.746  164  164  164
88  225  -40.901  164  164  164
88  226  -40.901  164  164  164
88  227  -41.055  164  164  164
88  228  -41.055  164  164  164
88  229  -41.055  164  164  164
88  230  -41.055  164  164  164
88  231  -41.055  164  164  164
88  232  -41.055  164  164  164
88  233  -41.055  164  164  164
88  234  -41.055  164  164  164
88  235  -41.055  164  164  164
88  236  -40.901  164  164  164
88  237  -40.901  164  164  164
88  238  -40.746  164  164  164
88  239  -40.746  164  164  164
88  240  -40.746  164  164  164
88  241  -40.746  164  164  164
88  242  -40.746  164  164  164
88  243  -40.746  164  164  164
88  244  -40.746  164  164  164
88  245  -40.746  164  164  164
88  246  -40.746  164  164  164
88  247  -40.591  165  165  165
88  248  -40.436  165  165  165
88  249  -40.436  165  165  165
88  250  -40.436  165  165  165
88  251  -40.436  165  165  165
88  252  -40.436  165  165  165
88  253  -40.436  165  165  165
88  254  -40.436  165  165  165
88  280  -22.774  196  196  196
88  298  -45.703  157  157  157
88  299  -45.858  157  157  157
88  300  -46.168  157  157  157
88  301  -46.323  156  156  156
88  302  -46.168  157  157  157
89  8  -35.168  173  173  173
89  9  -35.168  173  173  173
89  10  -35.323  173  173  173
89  11  -35.478  173  173  173
89  12  -35.788  172  172  172
89  13  -35.788  172  172  172
89  14  -35.943  172  172  172
89  15  -36.098  172  172  172
89  16  -35.943  172  172  172
89  17  -35.788  172  172  172
89  18  -35.788  172  172  172
89  19  -35.788  172  172  172
89  20  -35.788  172  172  172
89  21  -35.788  172  172  172
89  22  -35.788  172  172  172
89  23  -35.788  172  172  172
89  24  -35.633  172  172  172
89  25  -35.633  172  172  172
89  26  -35.478  173  173  173
89  27  -35.323  173  173  173
89  28  -35.323  173  173  173
89  29  -35.323  173  173  173
89  30  -35.323  173  173  173
89  31  -35.323  173  173  173
89  32  -35.478  173  173  173
89  33  -35.478  173  173  173
89  34  -35.478  172  172  172
89  76  -53.914  147  147  147
89  77  -54.069  147  147  147
89  78  -54.224  146  146  146
89  79  -54.224  146  146  146
89  80  -54.224  146  146  146
89  81  -54.224  146  146  146
89  82  -54.379  146  146  146
89  83  -54.224  146  146  146
89  84  -54.224  146  146  146
89  85  -54.069  147  147  147
89  86  -54.069  147  147  147
89  87  -54.224  146  146  146
89  88  -54.224  146  146  146
89  109  -32.689  177  177  177
89  110  -32.534  178  178  178
89  111  -32.534  178  178  178
89  112  -32.534  178  178  178
89  113  -32.689  177  177  177
89  114  -32.689  177  177  177
89  115  -32.689  177  177  177
89  116  -32.689  177  177  177
89  117  -32.844  177  177  177
89  118  -32.844  177  177  177
89  119  -32.844  177  177  177
89  120  -32.844  177  177  177
89  125  -42.140  162  162  162
89  126  -42.140  162  162  162
89  127  -41.985  162  162  162
89  128  -41.985  162  162  162
89  129  -41.830  163  163  163
89  130  -41.830  163  163  163
89  131  -41.830  163  163  163
89  132  -41.830  163  163  163
89  133  -41.675  163  163  163
89  134  -41.675  163  163  163
89  158  -38.886  167  167  167
89  159  -38.886  167  167  167
89  160  -38.732  167  167  167
89  168  -37.337  169  169  169
89  169  -37.337  170  170  170
89  170  -37.337  169  169  169
89  171  -37.337  170  170  170
89  172  -37.337  170  170  170
89  173  -37.337  169  169  169
89  174  -37.492  169  169  169
89  175  -37.337  169  169  169
89  176  -37.337  170  170  170
89  177  -37.337  169  169  169
89  178  -37.337  169  169  169
89  179  -37.337  169  169  169
89  180  -37.337  169  169  169
89  181  -37.337  169  169  169
89  182  -37.492  169  169  169
89  183  -37.492  169  169  169
89  184  -37.492  169  169  169
89  185  -37.492  169  169  169
89  186  -37.492  169  169  169
89  187  -37.492  169  169  169
89  188  -37.492  169  169  169
89  189  -37.492  169  169  169
89  190  -37.492  169  169  169
89  191  -37.647  169  169  169
89  192  -37.647  169  169  169
89  193  -37.647  169  169  169
89  194  -37.647  169  169  169
89  195  -37.802  169  169  169
89  196  -37.802  169  169  169
89  197  -37.802  169  169  169
89  198  -37.647  169  169  169
89  199  -37.647  169  169  169
89  200  -37.647  169  169  169
89  201  -37.647  169  169  169
89  202  -37.647  169  169  169
89  203  -37.647  169  169  169
89  204  -37.647  169  169  169
89  205  -37.802  169  169  169
89  206  -37.802  169  169  169
89  207  -37.802  169  169  169
89  208  -38.112  168  168  168
89  209  -38.577  168  168  168
89  210  -38.732  167  167  167
89  212  -39.196  167  167  167
89  213  -39.506  166  166  166
89  214  -40.126  165  165  165
89  215  -40.281  165  165  165
89  216  -40.281  165  165  165
89  217  -40.436  165  165  165
89  218  -40.436  165  165  165
89  219  -40.436  165  165  165
89  220  -40.591  165  165  165
89  221  -40.591  165  165  165
89  222  -40.746  164  164  164
89  223  -40.746  164  164  164
89  224  -40.901  164  164  164
89  225  -40.901  164  164  164
89  226  -40.901  164  164  164
89  227  -40.901  164  164  164
89  228  -41.055  164  164  164
89  229  -41.055  164  164  164
89  230  -41.055  164  164  164
89  231  -41.055  164  164  164
89  232  -40.901  164  164  164
89  233  -41.055  164  164  164
89  234  -41.055  164  164  164
89  235  -41.055  164  164  164
89  236  -40.901  164  164  164
89  237  -40.901  164  164  164
89  238  -40.746  164  164  164
89  239  -40.746  164  164  164
